4.6300912e-01 -7.2340780e-01 5.1215589e-01 4.3644550e-01 7.6784521e-01 4.6896601e-01
8.1304115e-01 -4.1024339e-01 4.1311541e-01 6.8494183e-01 -2.4621567e-01 -6.8573499e-01
1.3934854e-01 2.4961956e-02 9.8992878e-01 1.2542267e-01 4.9134782e-01 8.6188543e-01
6.3464716e-02 -2.4931030e-01 -9.6634185e-01 5.8457341e-02 1.2290814e-01 -9.9069494e-01
1.3804489e-01 -3.8214964e-01 9.1373152e-01 2.8667113e-01 -5.3455728e-01 7.9502714e-01
4.9931666e-01 -5.1941520e-01 6.9346291e-01 5.7862920e-01 1.8576677e-01 7.9415298e-01
6.3197523e-02 1.8116008e-01 -9.8142099e-01 5.6076746e-02 -2.0892221e-01 -9.7632313e-01
-6.3239411e-02 3.5731876e-01 9.3183911e-01 -6.3369744e-02 2.1536642e-01 9.7447509e-01
6.1843556e-01 6.8397647e-01 3.8692862e-01 7.0339817e-01 7.0653689e-01 7.7695601e-02
-4.4347423e-01 6.7620009e-01 -5.8828908e-01 -6.3287461e-01 7.7382135e-01 -2.5889397e-02
-6.0050964e-01 -6.1729789e-01 5.0826329e-01 -7.0674586e-01 3.6454907e-01 6.0631204e-01
6.1634075e-02 -1.7311676e-01 -9.8297095e-01 5.2783545e-02 3.9120686e-01 -9.1878784e-01
-6.6690105e-01 -5.6396765e-01 4.8701483e-01 -3.9356092e-01 -2.0411159e-01 8.9635271e-01
-4.9721724e-01 -6.1965907e-01 6.0728711e-01 2.2048213e-01 -6.1602604e-01 7.5624043e-01
-6.4366126e-01 3.0048838e-01 7.0385152e-01 -5.1007426e-01 2.0716475e-01 8.3480960e-01
-4.5089707e-01 6.6401470e-01 -5.9646994e-01 -3.5846710e-01 8.1004602e-01 -4.6403313e-01
1.3310988e-01 4.2825329e-01 8.9380139e-01 1.2283450e-01 5.8573073e-01 8.0114371e-01
-6.5572488e-01 -7.0835984e-01 2.6124933e-01 4.5545387e-01 -7.2594351e-01 5.1533282e-01
-4.0324780e-01 9.0258527e-01 1.5076815e-01 -6.8503875e-01 -6.8199825e-01 2.5612545e-01
3.5292697e-01 -2.1722460e-01 9.1008568e-01 3.6726296e-01 7.7568330e-02 9.2687702e-01
-6.6949332e-01 4.7870770e-01 -5.6799442e-01 -8.6216587e-01 5.0478142e-01 -4.3194760e-02
-5.8794357e-03 3.8302886e-01 9.2371768e-01 4.7281936e-02 4.6420354e-01 8.8446563e-01
-2.6019007e-01 9.6966870e-02 -9.6067613e-01 -5.6495368e-01 1.6466993e-01 -8.0852407e-01
5.1354820e-01 7.6860231e-01 -3.8146919e-01 4.9783257e-01 6.5027392e-01 -5.7385242e-01
-3.6090624e-01 2.3111619e-01 9.0351093e-01 -3.0861986e-01 1.5837950e-01 9.3790710e-01
3.6288494e-01 4.0797761e-01 -8.3777606e-01 1.3668032e-01 4.1018128e-01 -9.0170389e-01
8.3698648e-01 -4.0761602e-01 3.6510667e-01 7.2746277e-01 -2.6320294e-01 -6.3365775e-01
-6.7463860e-02 -8.0252565e-02 9.9448889e-01 -6.4127669e-02 -1.7538685e-01 9.8240882e-01
2.7184746e-01 6.8600845e-01 6.7490101e-01 2.0160922e-01 8.4632105e-01 4.9304608e-01
-5.8361650e-01 2.0282647e-01 -7.8629082e-01 -5.6838506e-01 3.0406857e-01 -7.6451343e-01
1.3715330e-01 4.1917166e-01 8.9748764e-01 1.2631112e-01 6.0566252e-01 7.8563249e-01
-4.5357659e-01 6.9315302e-01 -5.6018484e-01 -5.9784907e-01 7.8108394e-01 -1.8023397e-01
4.0185639e-01 8.0385691e-01 4.3854928e-01 6.4607018e-01 -2.9237154e-01 7.0506185e-01
4.4949125e-02 -6.5663129e-01 7.5287116e-01 3.6492854e-01 -5.7913357e-01 7.2899348e-01
1.3912539e-01 -2.6176887e-02 9.8992872e-01 1.3344190e-01 -2.8401524e-01 9.4948858e-01
8.1500518e-01 1.3305025e-01 -5.6397188e-01 4.4023430e-01 1.7856149e-01 -8.7994862e-01
-4.6897262e-01 3.5255909e-01 8.0979425e-01 -6.1474897e-02 3.7029681e-01 9.2687702e-01
-6.4000106e-01 5.5639189e-01 -5.2993089e-01 -7.9800498e-01 5.8681053e-01 -1.3726436e-01
-3.6685783e-01 3.7222508e-02 9.2953205e-01 -3.5480908e-01 -2.1413657e-01 9.1008574e-01
2.4840879e-01 9.0630776e-01 3.4190542e-01 4.3336070e-01 6.7559022e-01 5.9646988e-01
5.7573664e-01 1.8372414e-01 7.9672629e-01 5.4963875e-01 -3.7314767e-01 7.4743438e-01
-3.8450360e-01 7.5460011e-01 5.3172898e-01 -3.6499807e-01 5.4705060e-01 7.5333399e-01
1.2714094e-01 4.0673658e-01 9.0465492e-01 1.3781866e-01 1.3917294e-01 9.8063087e-01
-4.0756723e-01 -2.1130428e-01 8.8839155e-01 -5.3472094e-02 -2.1803491e-01 9.7447503e-01
-6.6129833e-02 3.0739123e-01 9.4928265e-01 -6.0321469e-02 -2.7765520e-02 9.9779278e-01
2.2620391e-02 4.0202421e-01 -9.1534960e-01 -1.5924183e-01 3.8227409e-01 -9.1022444e-01
-4.9649915e-01 -1.4779207e-01 8.5536319e-01 -4.9103886e-01 1.6502935e-01 8.5536319e-01
4.4275790e-01 5.2267808e-01 -7.2854173e-01 2.1799621e-01 4.9633673e-01 -8.4031391e-01
4.1369814e-01 -2.5546983e-01 -8.7383580e-01 4.3466784e-02 -2.5356284e-01 -9.6634179e-01
-6.3948464e-01 5.4665661e-01 -5.4057938e-01 -8.0313492e-01 5.9270799e-01 -6.0593471e-02
6.1010782e-02 2.8349376e-01 -9.5703131e-01 5.9665885e-02 -1.1372805e-01 -9.9171865e-01
-6.2314463e-01 -4.8132357e-01 6.1645633e-01 -5.4489315e-01 -3.8018084e-01 7.4736476e-01
-6.9889970e-02 9.9584925e-01 5.8306463e-02 -2.3977773e-01 9.3859971e-01 2.4806690e-01
6.3456662e-02 1.9253609e-01 -9.7923595e-01 5.3056814e-02 4.0826541e-01 -9.1132009e-01
3.1289205e-01 -4.7010008e-01 8.2529050e-01 3.3128846e-01 -3.7530190e-01 8.6567682e-01
9.3162501e-01 3.5675091e-01 6.9308072e-02 8.9854795e-01 2.9660621e-01 -3.2347536e-01
-6.8474881e-02 1.9080901e-01 9.7923601e-01 -6.8474881e-02 -1.9080895e-01 9.7923601e-01
3.9452416e-01 8.6488193e-01 3.1037083e-01 4.9364385e-01 8.6363298e-01 -1.0224421e-01
8.3392072e-01 -5.2154547e-01 -1.8046202e-01 8.0797875e-01 -4.7634086e-01 -3.4679917e-01
